ply
format ascii 1.0
element vertex 2178
property float x
property float y
property float z
end_header
1049.95 -238.437 869
1048.3 -236.963 860
1049.03 -236.039 853
1048.48 -234.837 845
1047.88 -233.633 837
1047.21 -232.427 829
1047.76 -231.5 822
1046.99 -230.29 814
1046.15 -229.078 806
1046.57 -228.148 799
1045.62 -226.933 791
1045.95 -226.002 784
1047.59 -225.362 778
1046.5 -224.143 770
1045.34 -222.92 762
1045.51 -221.989 755
1044.24 -220.763 747
1044.32 -219.831 740
1042.94 -218.601 732
1042.93 -217.667 725
1042.88 -216.734 718
1041.33 -215.498 710
1041.2 -214.563 703
1042.52 -213.936 697
1042.33 -213.003 690
1043.62 -212.381 684
1044.91 -211.764 678
1047.74 -211.464 673
1050.61 -211.172 668
1053.5 -210.888 663
1053.21 -209.972 656
1054.51 -209.379 650
1060.73 -209.763 647
1067.05 -210.165 644
-387.876 -74.5855 232
-387.055 -74.7275 234
-382.969 -74.2378 234
-377.339 -73.4435 233
-371.817 -72.6637 232
-364.812 -71.5867 230
-357.94 -70.527 228
-351.198 -69.4842 226
-346.12 -68.7633 225
-341.133 -68.0547 224
-336.235 -67.3579 223
-332.916 -66.9729 223
-331.13 -66.8943 224
-327.904 -66.5229 224
-326.179 -66.4542 225
-324.476 -66.3894 226
-322.794 -66.3285 227
-319.724 -65.9806 227
-318.096 -65.9284 228
-316.487 -65.8797 229
-314.896 -65.8344 230
-313.323 -65.7923 231
-313.11 -66.0369 233
-311.557 -65.9997 234
-310.02 -65.9656 235
-308.498 -65.9344 236
-306.99 -65.906 237
-306.781 -66.1573 239
-305.29 -66.1332 240
-305.073 -66.3861 242
-303.596 -66.3661 243
-302.132 -66.3486 244
-300.68 -66.3336 245
-300.456 -66.5906 247
-299.017 -66.5792 248
-298.783 -66.8376 250
-298.538 -67.096 252
-297.109 -67.0892 253
-296.854 -67.3488 255
-296.588 -67.6084 257
-295.168 -67.6061 258
-294.891 -67.8668 260
-294.603 -68.1276 262
-293.19 -68.1294 263
-292.89 -68.3912 265
-292.58 -68.653 267
-292.258 -68.9149 269
-291.926 -69.1767 271
-291.583 -69.4386 273
-290.171 -69.4471 274
-290.865 -69.9626 277
-290.49 -70.2245 279
-290.104 -70.4865 281
-289.707 -70.7486 283
-289.299 -71.0108 285
-288.881 -71.2729 287
-287.454 -71.2876 288
-288.012 -71.7974 291
-287.562 -72.0597 293
-287.1 -72.322 295
-286.628 -72.5845 297
-286.146 -72.847 299
-286.601 -73.3524 302
-286.09 -73.6143 304
-285.567 -73.8763 306
-285.034 -74.1384 308
-285.408 -74.6405 311
-284.846 -74.9021 313
-284.274 -75.1638 315
-284.586 -75.6635 318
-284.873 -76.162 321
-285.135 -76.6594 324
-286.244 -77.3915 328
-286.448 -77.8859 331
-286.628 -78.3792 334
-286.784 -78.8715 337
-288.602 -79.8295 342
-291.206 -81.0169 348
-297.062 -83.1285 358
-301.975 -84.9993 367
-304.334 -86.1691 373
-305.011 -86.8737 377
-304.85 -87.3467 380
-303.872 -87.5896 382
-1380.68 -455.464 2081
-1364.52 -453.253 2075
-1349.82 -451.495 2071
-1340.39 -451.491 2075
-1331.62 -451.711 2080
-1324.14 -452.372 2087
-1316.01 -452.82 2093
-1306.63 -452.843 2097
-1296.04 -452.441 2099
-1284.88 -451.833 2100
-1276.19 -452.093 2105
-1268.71 -452.787 2112
-1263.59 -454.343 2123
-1255.47 -454.831 2129
-1245 -454.472 2131
-1235.72 -454.547 2135
-1227.61 -455.053 2141
-1219.49 -455.564 2147
-1211.37 -456.081 2153
-1202.12 -456.179 2157
-1194.53 -456.918 2164
-1183.11 -456.185 2164
-1172.27 -455.672 2165
-1160.41 -454.746 2164
-1149.67 -454.25 2165
-1137.92 -453.343 2164
-1127.8 -453.072 2166
-1116.15 -452.182 2165
-1105.59 -451.719 2166
-1094.56 -451.055 2166
-1083.58 -450.399 2166
-1072.15 -449.544 2165
-1061.26 -448.905 2165
-1050.91 -448.481 2166
-1040.59 -448.065 2167
-1030.31 -447.656 2168
-1020.06 -447.254 2169
-1009.84 -446.86 2170
-999.194 -446.266 2170
-988.135 -445.476 2169
-977.577 -444.898 2169
-967.059 -444.328 2169
-956.141 -443.561 2168
-945.707 -443.006 2168
-935.312 -442.458 2168
-924.529 -441.713 2167
-914.214 -441.18 2167
-904.353 -440.858 2168
-894.106 -440.338 2168
-884.303 -440.029 2169
-873.72 -439.321 2168
-863.18 -438.62 2167
-852.684 -437.926 2166
-842.231 -437.24 2165
-832.204 -436.763 2165
-821.83 -436.09 2164
-811.873 -435.626 2164
-801.576 -434.968 2163
-791.685 -434.517 2163
-780.741 -433.47 2160
-770.21 -432.632 2158
-759.727 -431.801 2156
-749.986 -431.377 2156
-739.588 -430.559 2154
-730.251 -430.348 2155
-720.599 -429.943 2155
-711.304 -429.743 2156
-701.701 -429.35 2156
-692.123 -428.962 2156
-682.572 -428.581 2156
-672.733 -428.007 2155
-662.929 -427.439 2154
-653.763 -427.274 2155
-644.016 -426.718 2154
-634.006 -425.97 2152
-624.616 -425.624 2152
-614.964 -425.087 2151
-605.624 -424.752 2151
-596.029 -424.226 2150
-587.009 -424.1 2151
-577.734 -423.783 2151
-568.479 -423.471 2151
-559.244 -423.164 2151
-550.284 -423.06 2152
-541.085 -422.764 2152
-531.657 -422.277 2151
-522.499 -421.991 2151
-513.36 -421.712 2151
-503.77 -421.045 2149
-494.675 -420.776 2149
-485.597 -420.513 2149
-476.536 -420.254 2149
-467.274 -419.805 2148
-458.036 -419.362 2147
-448.614 -418.729 2145
-439.634 -418.491 2145
-430.468 -418.063 2144
-421.522 -417.836 2144
-412.783 -417.808 2145
-404.049 -417.786 2146
-395.137 -417.573 2146
-386.418 -417.56 2147
-377.529 -417.357 2147
-368.652 -417.159 2147
-359.62 -416.772 2146
-350.608 -416.389 2145
-341.776 -416.206 2145
-332.955 -416.028 2145
-323.994 -415.661 2144
-315.2 -415.492 2144
-306.416 -415.328 2144
-297.642 -415.169 2144
-288.744 -414.821 2143
-279.994 -414.671 2143
-271.253 -414.526 2143
-262.398 -414.193 2142
-253.561 -413.864 2141
-244.74 -413.54 2140
-236.046 -413.414 2140
-227.359 -413.292 2140
-218.68 -413.176 2140
-210.009 -413.063 2140
-201.438 -413.148 2141
-192.776 -413.045 2141
-184.12 -412.947 2141
-175.388 -412.66 2140
-166.748 -412.571 2140
-157.965 -412.1 2138
-149.344 -412.02 2138
-140.727 -411.944 2138
-132.177 -412.066 2139
-123.566 -411.999 2139
-114.958 -411.937 2139
-106.355 -411.879 2139
-97.7085 -411.633 2138
-89.1155 -411.585 2138
-80.4876 -411.348 2137
-71.9041 -411.308 2137
-63.3229 -411.273 2137
-54.7438 -411.242 2137
-46.1448 -411.023 2136
-37.5731 -411.001 2136
-28.9889 -410.792 2135
-20.4234 -410.779 2135
-11.8584 -410.77 2135
-3.29553 -410.958 2136
5.27305 -410.959 2136
13.8415 -410.964 2136
22.4107 -410.973 2136
30.9657 -410.794 2135
39.5325 -410.812 2135
48.1005 -410.835 2135
56.6702 -410.862 2135
65.1803 -410.509 2133
73.7458 -410.545 2133
82.2751 -410.392 2132
90.7991 -410.245 2131
99.3177 -410.102 2130
107.933 -410.348 2131
116.56 -410.599 2132
125.081 -410.469 2131
133.661 -410.536 2131
142.246 -410.608 2131
150.835 -410.684 2131
159.429 -410.764 2131
168.107 -411.042 2132
176.798 -411.325 2133
185.33 -411.227 2132
193.95 -411.325 2132
202.577 -411.429 2132
211.112 -411.344 2131
219.748 -411.456 2131
228.499 -411.766 2132
237.154 -411.888 2132
245.817 -412.014 2132
254.608 -412.339 2133
263.292 -412.474 2133
271.857 -412.421 2132
280.554 -412.566 2132
289.261 -412.716 2132
297.977 -412.87 2132
306.703 -413.029 2132
315.736 -413.58 2134
324.491 -413.749 2134
333.257 -413.923 2134
342.194 -414.295 2135
351.316 -414.866 2137
359.961 -414.86 2136
368.782 -415.053 2136
377.615 -415.25 2136
386.099 -415.064 2134
394.765 -415.077 2133
404.004 -415.678 2135
412.693 -415.701 2134
421.585 -415.923 2134
430.492 -416.15 2134
439.619 -416.577 2135
448.14 -416.424 2133
457.302 -416.861 2134
466.051 -416.913 2133
475.253 -417.361 2134
484.254 -417.619 2134
493.271 -417.881 2134
502.07 -417.953 2133
511.118 -418.226 2133
520.671 -418.897 2135
530.012 -419.377 2136
539.632 -420.059 2138
548.518 -420.157 2137
557.937 -420.654 2138
566.853 -420.763 2137
575.243 -420.483 2134
584.448 -420.798 2134
593.675 -421.12 2134
602.357 -421.052 2132
611.618 -421.384 2132
621.484 -422.117 2134
631.093 -422.659 2135
640.135 -422.81 2134
649.495 -423.166 2134
658.879 -423.526 2134
667.974 -423.694 2133
677.72 -424.265 2134
687.5 -424.843 2135
697.314 -425.426 2136
706.832 -425.817 2136
716.376 -426.213 2136
725.947 -426.616 2136
735.201 -426.824 2135
744.125 -426.839 2133
753.766 -427.259 2133
763.077 -427.485 2132
772.771 -427.918 2132
782.495 -428.357 2132
792.619 -429.003 2133
802.408 -429.455 2133
812.608 -430.114 2134
822.078 -430.378 2133
832.742 -431.253 2135
842.666 -431.731 2135
852.624 -432.216 2135
863.02 -432.911 2136
872.232 -433.003 2134
882.288 -433.508 2134
891.543 -433.614 2132
901.237 -433.929 2131
911.386 -434.454 2131
922.004 -435.19 2132
931.794 -435.525 2131
942.055 -436.072 2131
952.801 -436.83 2132
963.144 -437.392 2132
973.528 -437.96 2132
983.951 -438.536 2132
994.416 -439.12 2132
1004.45 -439.505 2131
1014.52 -439.897 2130
1024.62 -440.296 2129
1034.75 -440.702 2128
1044.43 -440.909 2126
1054.13 -441.122 2124
1062.85 -440.925 2120
1072.09 -440.943 2117
1079.3 -440.133 2110
1086.99 -439.535 2104
1092.59 -438.105 2094
1096.55 -436.049 2081
1100.43 -433.992 2068
1102.07 -431.095 2051
1104.67 -428.615 2036
1101.68 -424.026 2011
1101.25 -420.484 1991
1097.3 -415.668 1965
1095.94 -411.901 1944
1090.43 -406.643 1916
1088.11 -402.648 1894
1085.03 -398.433 1871
1082.92 -394.637 1850
1078.26 -389.978 1825
1073.98 -385.523 1801
1071.9 -381.916 1781
1069.64 -378.303 1761
1070.28 -375.758 1746
1062.77 -362.508 1672
1062.74 -359.939 1657
1061.3 -356.931 1640
1060.37 -354.135 1624
1060.63 -351.771 1610
1060.77 -349.403 1596
1062.15 -347.47 1584
1062.08 -345.095 1570
1061.91 -342.717 1556
1060.93 -340.113 1541
1059.14 -337.284 1525
1060.71 -335.556 1514
1060.79 -333.383 1501
1062.19 -331.651 1490
1062.08 -329.471 1477
1061.86 -327.287 1464
1061.54 -325.099 1451
1062.6 -323.357 1440
1062.08 -321.162 1427
1062.21 -319.189 1415
1063 -317.438 1404
1062.18 -315.231 1391
1062.8 -313.474 1380
1063.33 -311.715 1369
1063.78 -309.953 1358
1064.15 -308.188 1347
1065.23 -306.65 1337
1063.83 -304.42 1324
1064.75 -302.876 1314
1063.96 -300.869 1302
1063.9 -299.088 1291
1062.92 -297.072 1279
1062.68 -295.284 1268
1062.35 -293.492 1257
1062.79 -291.932 1247
1062.29 -290.133 1236
1062.57 -288.567 1226
1061.9 -286.761 1215
1062.03 -285.189 1205
1062.07 -283.613 1195
1062.04 -282.035 1185
1061.03 -280.215 1174
1060.84 -278.63 1164
1059.65 -276.802 1153
1058.36 -274.969 1142
1057.92 -273.373 1132
1058.33 -272.015 1123
1058.69 -270.656 1114
1058.02 -269.051 1104
1059.2 -267.931 1096
1059.35 -266.565 1087
1059.44 -265.196 1078
1058.48 -263.579 1068
1057.43 -261.957 1058
1055.28 -260.083 1047
1055.07 -258.702 1038
1054.79 -257.317 1029
1054.44 -255.93 1020
1054.02 -254.54 1011
1053.53 -253.147 1002
1052.97 -251.752 993
1052.33 -250.353 984
1051.63 -248.95 975
1050.85 -247.545 966
1051.1 -246.394 958
1051.29 -245.24 950
1052.55 -244.345 943
1051.52 -242.93 934
1051.55 -241.772 926
1051.52 -240.612 918
1050.28 -239.188 909
1050.13 -238.024 901
1048.75 -236.593 892
1049.66 -235.69 885
1049.34 -234.52 877
1050.17 -233.617 870
1049.74 -232.444 862
1049.26 -231.27 854
1048.71 -230.093 846
1048.11 -228.914 838
1047.45 -227.733 830
1048 -226.825 823
1048.52 -225.917 816
1047.7 -224.732 808
1046.82 -223.544 800
1047.2 -222.634 793
1047.54 -221.724 786
1046.5 -220.532 778
1045.4 -219.336 770
1045.61 -218.424 763
1044.4 -217.225 755
1044.52 -216.312 748
1043.19 -215.109 740
1043.22 -214.195 733
1043.21 -213.281 726
1043.17 -212.367 719
1041.62 -211.156 711
1041.49 -210.241 704
1041.32 -209.326 697
1041.11 -208.411 690
1042.39 -207.8 684
1043.66 -207.193 678
1048.04 -207.204 674
1050.9 -206.918 669
1055.38 -206.95 665
1056.72 -206.369 659
1059.67 -206.107 654
1064.29 -206.171 650
1070.64 -206.567 647
1072.08 -206.016 641
1080.29 -206.765 639
-386.514 -72.4836 229
-387.38 -72.9375 232
-386.566 -73.0775 234
-382.491 -72.5995 234
-376.874 -71.8239 233
-369.762 -70.756 231
-362.788 -69.7056 229
-355.945 -68.6721 227
-349.232 -67.6549 225
-344.18 -66.9526 224
-339.218 -66.2621 223
-335.851 -65.8785 223
-332.539 -65.5028 223
-329.283 -65.1346 223
-326.078 -64.7737 223
-324.373 -64.7088 224
-322.689 -64.6477 225
-321.027 -64.5903 226
-319.384 -64.5365 227
-317.761 -64.4862 228
-316.157 -64.4392 229
-314.57 -64.3954 230
-313.001 -64.3549 231
-311.449 -64.3175 232
-311.243 -64.5589 234
-309.71 -64.5261 235
-308.192 -64.4961 236
-306.689 -64.469 237
-305.2 -64.4445 238
-303.724 -64.4227 239
-303.521 -64.6718 241
-302.06 -64.6539 242
-300.611 -64.6384 243
-300.399 -64.8903 245
-298.963 -64.8784 246
-298.741 -65.1315 248
-298.51 -65.3846 250
-297.084 -65.3774 251
-296.842 -65.6317 253
-296.589 -65.8861 255
-295.172 -65.8831 256
-294.908 -66.1385 258
-294.633 -66.394 260
-294.347 -66.6496 262
-292.937 -66.6517 263
-292.639 -66.9082 265
-292.33 -67.1647 267
-292.011 -67.4213 269
-290.604 -67.4281 270
-290.272 -67.6856 272
-289.929 -67.9431 274
-290.625 -68.4477 277
-290.251 -68.7043 279
-289.867 -68.961 281
-289.472 -69.2178 283
-289.066 -69.4745 285
-288.649 -69.7313 287
-288.222 -69.9882 289
-287.784 -70.2451 291
-287.335 -70.502 293
-286.875 -70.759 295
-286.405 -71.0161 297
-285.924 -71.2732 299
-285.432 -71.5304 301
-284.929 -71.7876 303
-285.349 -72.2812 306
-284.817 -72.5378 308
-285.192 -73.0294 311
-283.723 -73.0515 312
-284.061 -73.542 315
-284.374 -74.0312 318
-284.662 -74.5192 321
-284.924 -75.0061 324
-286.034 -75.7227 328
-286.239 -76.2067 331
-286.419 -76.6896 334
-287.426 -77.4005 338
-289.237 -78.3375 343
-292.669 -79.7268 350
-298.508 -81.792 360
-302.582 -83.3949 368
-304.118 -84.3131 373
-303.987 -84.7774 376
-303.032 -85.0161 378
-302.069 -85.2552 380
-291.377 -83.7477 376
-1428.63 -443.169 2044
-1347.64 -441.372 2069
-1340.17 -442.009 2076
-1331.41 -442.225 2081
-1322.66 -442.448 2086
-1314.55 -442.888 2092
-1303.94 -442.489 2094
-1281.01 -441.084 2095
-1272.36 -441.341 2100
-1265.51 -442.233 2108
-1261.02 -443.966 2120
-1253.51 -444.656 2127
-1244.23 -444.723 2131
-1234.96 -444.797 2135
-1226.85 -445.293 2141
-1218.74 -445.794 2147
-1211.75 -446.715 2155
-1203.05 -447.019 2160
-1194.91 -447.534 2166
-1184.02 -447.023 2167
-1173.18 -446.521 2168
-1160.78 -445.409 2166
-1150.04 -444.924 2167
-1137.76 -443.831 2165
-1126.6 -443.157 2165
-1115.49 -442.492 2165
-1104.42 -441.835 2165
-1093.4 -441.186 2165
-1082.43 -440.546 2165
-1072.01 -440.117 2166
-1061.13 -439.492 2166
-1050.77 -439.077 2167
-1040.46 -438.67 2168
-1031.13 -438.674 2171
-1020.4 -438.079 2171
-1010.18 -437.693 2172
-999.532 -437.112 2172
-988.471 -436.339 2171
-977.46 -435.573 2170
-966.945 -435.015 2170
-956.029 -434.264 2169
-945.598 -433.722 2169
-934.343 -432.787 2167
-923.998 -432.258 2167
-913.69 -431.737 2167
-903.836 -431.422 2168
-894.009 -431.113 2169
-883.8 -430.612 2169
-873.224 -429.92 2168
-862.691 -429.234 2167
-851.809 -428.358 2165
-841.367 -427.687 2164
-831.736 -427.418 2165
-821.748 -426.958 2165
-811.792 -426.504 2165
-801.498 -425.86 2164
-791.609 -425.419 2164
-780.666 -424.395 2161
-770.495 -423.771 2160
-760.361 -423.154 2159
-749.918 -422.347 2157
-739.521 -421.547 2155
-729.848 -421.145 2155
-720.201 -420.749 2155
-710.252 -420.164 2154
-700.664 -419.779 2154
-691.423 -419.596 2155
-681.881 -419.223 2155
-672.365 -418.856 2155
-662.874 -418.495 2155
-653.407 -418.14 2155
-643.964 -417.79 2155
-634.25 -417.252 2154
-624.857 -416.914 2154
-615.488 -416.581 2154
-605.859 -416.06 2153
-596.261 -415.546 2152
-587.238 -415.423 2153
-577.691 -414.919 2152
-568.437 -414.614 2152
-559.203 -414.314 2152
-549.989 -414.019 2152
-540.795 -413.73 2152
-531.372 -413.254 2151
-522.22 -412.975 2151
-513.086 -412.702 2151
-503.736 -412.241 2150
-494.642 -411.978 2150
-485.565 -411.72 2150
-476.505 -411.468 2150
-467.026 -410.837 2148
-458.007 -410.595 2148
-448.377 -409.784 2145
-439.401 -409.552 2145
-430.441 -409.324 2145
-421.693 -409.293 2146
-412.758 -409.075 2146
-404.025 -409.053 2147
-395.113 -408.845 2147
-386.215 -408.642 2147
-377.155 -408.253 2146
-368.458 -408.25 2147
-359.431 -407.871 2146
-350.588 -407.687 2146
-341.597 -407.318 2145
-332.936 -407.334 2146
-323.976 -406.974 2145
-315.182 -406.809 2145
-306.399 -406.649 2145
-297.487 -406.304 2144
-288.593 -405.963 2143
-279.848 -405.817 2143
-270.985 -405.486 2142
-262.14 -405.16 2141
-253.43 -405.027 2141
-244.613 -404.71 2140
-235.924 -404.587 2140
-227.242 -404.468 2140
-218.567 -404.354 2140
-209.9 -404.244 2140
-201.24 -404.139 2140
-192.676 -404.227 2141
-183.938 -403.942 2140
-175.297 -403.85 2140
-166.662 -403.763 2140
-157.958 -403.491 2139
-149.337 -403.413 2139
-140.721 -403.339 2139
-132.171 -403.458 2140
-123.56 -403.393 2140
-114.953 -403.332 2140
-106.3 -403.087 2139
-97.6582 -402.846 2138
-89.0695 -402.799 2138
-80.4461 -402.567 2137
-71.9006 -402.717 2138
-63.2903 -402.494 2137
-54.7155 -402.464 2137
-46.121 -402.249 2136
-37.5713 -402.416 2137
-28.9876 -402.211 2136
-20.4319 -402.387 2137
-11.8633 -402.378 2137
-3.29504 -402.374 2137
5.27282 -402.375 2137
13.8411 -402.379 2137
22.4098 -402.388 2137
30.9502 -402.025 2135
39.5125 -402.043 2135
48.076 -402.065 2135
56.641 -402.091 2135
65.1775 -401.934 2134
73.7082 -401.781 2133
82.2329 -401.632 2132
90.795 -401.676 2132
99.3601 -401.724 2132
107.928 -401.776 2132
116.609 -402.21 2134
125.193 -402.272 2134
133.718 -402.149 2133
142.306 -402.219 2133
150.899 -402.294 2133
159.421 -402.184 2132
168.099 -402.456 2133
176.79 -402.733 2134
185.321 -402.636 2133
193.85 -402.544 2132
202.473 -402.645 2132
211.102 -402.75 2132
219.635 -402.672 2131
228.488 -403.164 2133
237.143 -403.283 2133
245.921 -403.596 2134
254.476 -403.535 2133
263.155 -403.667 2133
271.716 -403.615 2132
280.54 -403.946 2133
289.246 -404.093 2133
298.101 -404.433 2134
306.831 -404.589 2134
315.719 -404.939 2135
324.626 -405.293 2136
333.239 -405.273 2135
342.016 -405.447 2135
350.968 -405.816 2136
359.941 -406.19 2137
368.589 -406.189 2136
377.417 -406.382 2136
386.078 -406.39 2135
394.928 -406.592 2135
403.981 -406.99 2136
412.862 -407.203 2136
421.561 -407.23 2135
430.467 -407.452 2135
439.387 -407.679 2135
448.113 -407.72 2134
457.06 -407.956 2134
466.023 -408.198 2134
475.224 -408.636 2135
484.223 -408.888 2135
493.24 -409.145 2135
502.273 -409.407 2135
511.324 -409.674 2135
520.637 -410.139 2136
529.728 -410.416 2136
539.343 -411.083 2138
548.224 -411.179 2137
557.637 -411.665 2138
566.549 -411.771 2137
575.472 -411.882 2136
584.407 -411.998 2135
593.632 -412.313 2135
602.314 -412.246 2133
611.861 -412.764 2134
621.147 -413.095 2134
630.75 -413.624 2135
639.487 -413.578 2133
649.141 -414.119 2134
658.519 -414.472 2134
668.235 -415.025 2135
677.666 -415.389 2135
687.444 -415.954 2136
697.257 -416.525 2137
706.773 -416.907 2137
715.981 -417.099 2136
725.546 -417.493 2136
735.139 -417.892 2136
744.41 -418.102 2135
753.701 -418.317 2134
763.011 -418.538 2133
772.703 -418.961 2133
782.058 -419.194 2132
791.433 -419.432 2131
801.582 -420.07 2132
811.391 -420.518 2132
821.616 -421.17 2133
832.272 -422.026 2135
842.979 -422.889 2137
852.541 -423.166 2136
862.53 -423.646 2136
872.145 -423.935 2135
881.786 -424.231 2134
891.034 -424.333 2132
901.144 -424.84 2132
910.863 -425.154 2131
921.041 -425.674 2131
930.82 -426.002 2130
941.511 -426.736 2131
952.25 -427.478 2132
962.586 -428.026 2132
973.418 -428.783 2133
983.839 -429.347 2133
993.835 -429.716 2132
1004.33 -430.294 2132
1014.87 -430.879 2132
1024.5 -431.067 2130
1034.63 -431.465 2129
1044.3 -431.666 2127
1053.01 -431.468 2123
1061.72 -431.275 2119
1070.95 -431.291 2116
1078.65 -430.702 2110
1085.83 -429.912 2103
1091.94 -428.716 2094
1096.95 -427.113 2083
1099.77 -424.69 2068
1101.4 -421.854 2051
1102.91 -419.015 2034
1101.01 -414.935 2011
1100.57 -411.469 1991
1096.07 -406.548 1964
1096.96 -403.69 1947
1089.19 -397.714 1915
1086.87 -393.804 1893
1084.94 -390.095 1872
1083.41 -386.589 1852
1079.95 -382.448 1829
1076.29 -378.299 1806
1073.63 -374.561 1785
1072.61 -371.446 1767
1068.38 -367.273 1744
1065.78 -358.507 1693
1065.27 -355.786 1677
1063.99 -352.849 1660
1062.56 -349.906 1643
1062.3 -347.384 1628
1061.26 -344.643 1612
1062.08 -342.541 1599
1062.13 -340.221 1585
1063.42 -338.327 1573
1061.21 -335.353 1556
1060.24 -332.805 1541
1059.13 -330.252 1526
1060.71 -328.561 1515
1059.38 -326 1500
1061.49 -324.522 1490
1061.37 -322.388 1477
1061.88 -320.469 1465
1061.56 -318.328 1452
1062.61 -316.623 1441
1062.1 -314.475 1428
1062.98 -312.764 1417
1064.54 -311.272 1407
1063.74 -309.114 1394
1064.37 -307.396 1383
1063.37 -305.229 1370
1064.61 -303.728 1360
1064.2 -301.778 1348
1065.28 -300.272 1338
1064.69 -298.315 1326
1065.62 -296.805 1316
1064.03 -294.615 1303
1064.79 -293.099 1293
1063.83 -291.126 1281
1064.43 -289.605 1271
1063.28 -287.625 1259
1063.72 -286.098 1249
1063.24 -284.339 1238
1062.66 -282.576 1227
1062 -280.809 1216
1061.24 -279.038 1205
1061.28 -277.496 1195
1061.25 -275.951 1185
1061.14 -274.403 1175
1060.04 -272.617 1164
1059.76 -271.062 1154
1058.48 -269.269 1143
1058.98 -267.943 1134
1058.46 -266.378 1124
1058.82 -265.048 1115
1058.15 -263.477 1105
1058.37 -262.142 1096
1058.52 -260.804 1087
1058.61 -259.464 1078
1057.64 -257.88 1068
1056.58 -256.293 1058
1055.45 -254.701 1048
1056.25 -253.593 1040
1054.96 -251.994 1030
1055.65 -250.882 1022
1054.2 -249.277 1012
1053.71 -247.913 1003
1053.15 -246.547 994
1052.52 -245.178 985
1051.82 -243.806 976
1051.05 -242.431 967
1051.3 -241.304 959
1051.5 -240.175 951
1051.64 -239.045 943
1051.73 -237.914 935
1050.63 -236.525 926
1050.59 -235.39 918
1049.35 -233.995 909
1049.19 -232.854 901
1048.98 -231.712 893
1048.71 -230.568 885
1049.58 -229.684 878
1050.41 -228.8 871
1048.77 -227.389 862
1048.28 -226.238 854
1047.73 -225.085 846
1047.12 -223.93 838
1047.71 -223.041 831
1046.99 -221.883 823
1047.5 -220.993 816
1046.67 -219.832 808
1045.79 -218.668 800
1046.16 -217.776 793
1046.49 -216.885 786
1046.79 -215.993 779
1045.69 -214.823 771
1045.9 -213.931 764
1046.07 -213.038 757
1044.81 -211.863 749
1044.9 -210.97 742
1044.94 -210.077 735
1043.52 -208.896 727
1042.03 -207.713 719
1041.94 -206.817 712
1041.81 -205.921 705
1041.64 -205.025 698
1041.44 -204.13 691
1044.24 -203.829 686
1045.53 -203.236 680
1048.36 -202.947 675
1049.65 -202.364 669
1054.11 -202.393 665
1055.43 -201.822 659
1059.99 -201.871 655
1064.61 -201.932 651
1069.3 -202.007 647
1072.39 -201.78 642
-386.025 -70.8509 229
-386.896 -71.2957 232
-386.089 -71.4336 234
-382.024 -70.9674 234
-374.804 -69.9088 232
-367.723 -68.8678 230
-360.778 -67.8438 228
-353.964 -66.8361 226
-347.279 -65.8445 224
-342.252 -65.1604 223
-338.835 -64.7784 223
-333.972 -64.1154 222
-330.683 -63.7504 222
-327.447 -63.3928 222
-325.725 -63.3263 223
-324.025 -63.2635 224
-320.914 -62.9235 224
-320.69 -63.149 226
-317.646 -62.819 226
-317.434 -63.0484 228
-314.455 -62.7279 228
-314.252 -62.9609 230
-312.688 -62.9219 231
-311.14 -62.8858 232
-309.608 -62.8527 233
-308.091 -62.8224 234
-306.59 -62.7949 235
-306.395 -63.0361 237
-304.91 -63.0127 238
-302.168 -62.7283 238
-301.979 -62.9735 240
-300.532 -62.9576 241
-300.334 -63.2042 243
-298.9 -63.1919 244
-298.691 -63.4397 246
-298.473 -63.6876 248
-297.05 -63.6798 249
-296.821 -63.9289 251
-296.58 -64.178 253
-296.329 -64.4272 255
-294.916 -64.4247 256
-294.654 -64.6749 258
-294.381 -64.9251 260
-294.097 -65.1753 262
-292.689 -65.1778 263
-292.393 -65.429 265
-292.087 -65.6802 267
-291.769 -65.9314 269
-291.441 -66.1827 271
-291.101 -66.4339 273
-289.694 -66.4427 274
-290.39 -66.9365 277
-290.018 -67.1878 279
-290.666 -67.6792 282
-290.264 -67.9298 284
-289.851 -68.1804 286
-289.428 -68.431 288
-287.997 -68.4449 289
-287.56 -68.6964 291
-287.113 -68.948 293
-286.655 -69.1996 295
-286.186 -69.4513 297
-285.707 -69.703 299
-286.164 -70.1872 302
-285.655 -70.4384 304
-285.136 -70.6896 306
-285.53 -71.1713 309
-284.981 -71.422 311
-284.422 -71.6728 313
-283.853 -71.9237 315
-284.167 -72.4024 318
-284.455 -72.88 321
-284.718 -73.3564 324
-285.828 -74.0575 328
-286.034 -74.5311 331
-286.215 -75.0036 334
-287.222 -75.6991 338
-289.876 -76.8392 344
-293.299 -78.1976 351
-299.128 -80.2171 361
-302.371 -81.5628 368
-303.907 -82.4611 373
-303.777 -82.9154 376
-302.824 -83.1491 378
-301.068 -83.1637 379
-1422.82 -431.97 2037
-1339.98 -432.536 2077
-1329.94 -432.333 2080
-1321.2 -432.552 2085
-1311.22 -432.363 2088
-1300.02 -431.768 2089
-1288.25 -430.975 2089
-1279 -431.016 2093
-1272.18 -431.886 2101
-1265.94 -432.964 2110
-1262.63 -435.07 2124
-1255.1 -435.743 2131
-1246.39 -436.012 2136
-1236.52 -435.88 2139
-1227.26 -435.958 2143
-1218.01 -436.042 2147
-1210.46 -436.74 2154
-1201.22 -436.836 2158
-1193.64 -437.544 2165
-1183.32 -437.247 2167
-1172.49 -436.756 2168
-1160.63 -435.871 2167
-1149.89 -435.396 2168
-1137.62 -434.328 2166
-1126.46 -433.669 2166
-1115.35 -433.019 2166
-1104.28 -432.377 2166
-1093.27 -431.743 2166
-1082.3 -431.116 2166
-1071.88 -430.697 2167
-1061 -430.086 2167
-1050.17 -429.482 2167
-1039.86 -429.085 2168
-1030.06 -428.892 2170
-1019.81 -428.508 2171
-1009.6 -428.131 2172
-998.962 -427.564 2172
-988.818 -427.2 2173
-977.806 -426.451 2172
-966.843 -425.71 2171
-955.93 -424.976 2170
-945.065 -424.25 2169
-934.249 -423.531 2168
-923.905 -423.014 2168
-913.6 -422.505 2168
-903.331 -422.002 2168
-893.51 -421.701 2169
-883.308 -421.211 2169
-872.739 -420.534 2168
-862.611 -420.058 2168
-851.731 -419.201 2166
-841.291 -418.545 2165
-831.278 -418.089 2165
-821.297 -417.639 2165
-811.347 -417.196 2165
-801.059 -416.566 2164
-791.176 -416.135 2164
-780.602 -415.326 2162
-770.432 -414.716 2161
-759.948 -413.921 2159
-749.511 -413.132 2157
-739.464 -412.542 2156
-729.453 -411.957 2155
-719.813 -411.57 2155
-709.87 -410.998 2154
-700.287 -410.622 2154
-691.051 -410.443 2155
-681.516 -410.079 2155
-672.006 -409.721 2155
-662.52 -409.368 2155
-653.362 -409.21 2156
-644.218 -409.058 2157
-634.207 -408.343 2155
-624.526 -407.822 2154
-615.162 -407.497 2154
-605.539 -406.988 2153
-595.946 -406.485 2152
-586.928 -406.365 2153
-577.118 -405.684 2151
-568.138 -405.574 2152
-558.909 -405.281 2152
-549.701 -404.993 2152
-540.512 -404.711 2152
-531.341 -404.433 2152
-522.19 -404.161 2152
-513.057 -403.893 2152
-503.473 -403.256 2150
-494.384 -402.999 2150
-485.312 -402.747 2150
-476.257 -402.499 2150
-466.784 -401.883 2148
-457.77 -401.646 2148
-448.563 -401.227 2147
-439.584 -401 2147
-430.42 -400.591 2146
-421.868 -400.747 2148
-412.737 -400.347 2147
-404.005 -400.326 2148
-394.91 -399.936 2147
-386.017 -399.738 2147
-376.961 -399.358 2146
-368.27 -399.355 2147
-359.08 -398.798 2145
-350.245 -398.619 2145
-341.423 -398.444 2145
-332.766 -398.459 2146
-323.811 -398.108 2145
-315.022 -397.947 2145
-306.243 -397.79 2145
-297.474 -397.638 2145
-288.581 -397.305 2144
-279.836 -397.162 2144
-271.1 -397.023 2144
-262.251 -396.704 2143
-253.419 -396.39 2142
-244.604 -396.08 2141
-235.804 -395.774 2140
-227.233 -395.843 2141
-218.559 -395.731 2141
-209.794 -395.439 2140
-201.232 -395.521 2141
-192.488 -395.238 2140
-183.846 -395.144 2140
-175.127 -394.87 2139
-166.577 -394.969 2140
-157.804 -394.519 2138
-149.261 -394.627 2139
-140.65 -394.554 2139
-132.043 -394.486 2139
-123.497 -394.607 2140
-114.841 -394.363 2139
-106.196 -394.123 2138
-97.609 -394.073 2138
-89.0246 -394.026 2138
-80.368 -393.615 2136
-71.8644 -393.946 2138
-63.2879 -393.912 2138
-54.6879 -393.698 2137
-46.1194 -393.673 2137
-37.5698 -393.836 2138
-28.9998 -393.82 2138
-20.431 -393.807 2138
-11.8627 -393.799 2138
-3.2964 -393.979 2139
5.27289 -393.796 2138
13.8343 -393.616 2137
22.3986 -393.625 2137
30.9492 -393.454 2136
39.5111 -393.471 2136
48.052 -393.309 2135
56.6129 -393.334 2135
65.1145 -392.996 2133
73.6366 -392.846 2132
82.1532 -392.7 2131
90.7069 -392.743 2131
99.2636 -392.79 2131
107.925 -393.21 2133
116.606 -393.635 2135
125.189 -393.695 2135
133.776 -393.759 2135
142.301 -393.643 2134
150.894 -393.716 2134
159.416 -393.609 2133
168.172 -394.059 2135
176.867 -394.33 2136
185.488 -394.42 2136
193.934 -394.145 2134
202.466 -394.059 2133
210.995 -393.978 2132
219.627 -394.085 2132
228.373 -394.382 2133
237.134 -394.683 2134
246.027 -395.174 2136
254.586 -395.115 2135
263.145 -395.059 2134
271.96 -395.378 2135
280.529 -395.332 2134
289.235 -395.475 2134
298.09 -395.808 2135
306.819 -395.96 2135
315.706 -396.302 2136
324.612 -396.649 2137
333.069 -396.443 2135
341.681 -396.428 2134
350.625 -396.789 2135
359.588 -397.154 2136
368.227 -397.152 2135
377.224 -397.527 2136
386.06 -397.721 2136
395.095 -398.105 2137
403.962 -398.308 2137
412.843 -398.516 2137
421.738 -398.728 2137
430.446 -398.759 2136
439.572 -399.168 2137
448.091 -399.021 2135
457.038 -399.252 2135
465.563 -399.114 2133
474.755 -399.543 2134
483.745 -399.789 2134
492.983 -400.227 2135
501.777 -400.296 2134
511.058 -400.744 2135
520.365 -401.198 2136
529.699 -401.657 2137
538.808 -401.934 2137
548.193 -402.403 2138
557.345 -402.69 2138
566.516 -402.982 2138
575.169 -402.902 2136
584.373 -403.204 2136
593.597 -403.511 2136
602.56 -403.635 2135
611.823 -403.953 2135
621.108 -404.276 2135
630.711 -404.794 2136
639.746 -404.938 2135
649.099 -405.278 2135
658.168 -405.432 2134
667.878 -405.973 2135
677.303 -406.329 2135
687.076 -406.881 2136
697.209 -407.63 2138
706.393 -407.812 2137
715.595 -408 2136
725.494 -408.576 2137
734.741 -408.775 2136
744.006 -408.98 2135
753.644 -409.382 2135
762.953 -409.597 2134
772.643 -410.011 2134
781.997 -410.238 2133
792.114 -410.856 2134
801.894 -411.288 2134
812.086 -411.919 2135
822.318 -412.556 2136
832.203 -413.007 2136
842.513 -413.658 2137
852.069 -413.928 2136
862.052 -414.398 2136
871.252 -414.486 2134
881.295 -414.969 2134
890.119 -414.874 2131
900.64 -415.563 2132
910.352 -415.87 2131
920.524 -416.379 2131
930.296 -416.698 2130
941.421 -417.612 2132
952.158 -418.337 2133
962.491 -418.873 2133
973.321 -419.614 2134
983.74 -420.164 2134
993.733 -420.525 2133
1003.76 -420.893 2132
1013.82 -421.267 2131
1023.91 -421.648 2130
1033.55 -421.838 2128
1043.21 -422.034 2126
1052.4 -422.038 2123
1061.11 -421.849 2119
1070.32 -421.865 2116
1078.02 -421.287 2110
1085.71 -420.714 2104
1091.3 -419.344 2094
1096.3 -417.775 2083
1099.65 -415.605 2069
1102.9 -413.434 2055
1102.26 -409.852 2034
1102 -406.466 2014
1099.37 -402.267 1990
1097.64 -398.465 1968
1094.05 -394.049 1943
1090.81 -389.826 1919
1085.06 -384.782 1891
1084.28 -381.56 1872
1083.34 -378.334 1853
1080.48 -374.488 1831
1073.25 -369.201 1802
1072.38 -366.158 1784
1070.74 -362.905 1765
1068.95 -359.645 1746
1064.61 -347.995 1677
1064.6 -345.537 1662
1067.07 -343.909 1651
1062.94 -340.192 1630
1062.56 -337.721 1615
1062.73 -335.455 1601
1062.12 -332.976 1586
1062.74 -330.914 1573
1060.54 -328.005 1556
1060.93 -325.934 1543
1058.45 -323.014 1526
1060.02 -321.359 1515
1060.81 -319.49 1503
1062.93 -318.045 1493
1063.55 -316.173 1481
1064.08 -314.297 1469
1064.51 -312.419 1457
1063.39 -310.108 1443
1064.37 -308.438 1432
1063.78 -306.334 1419
1064.59 -304.659 1408
1064.55 -302.765 1396
1064.43 -300.867 1384
1064.2 -298.966 1372
1064.67 -297.279 1361
1065.05 -295.59 1350
1065.35 -293.899 1339
1064.76 -291.984 1327
1065.69 -290.507 1317
1064.11 -288.364 1304
1064.87 -286.881 1294
1064.74 -285.174 1283
1064.52 -283.464 1272
1063.37 -281.527 1260
1063.82 -280.033 1250
1063.34 -278.312 1239
1062.77 -276.588 1228
1062.11 -274.86 1217
1062.24 -273.354 1207
1062.29 -271.846 1197
1062.27 -270.335 1187
1061.26 -268.593 1176
1060.17 -266.847 1165
1059.9 -265.326 1155
1059.55 -263.802 1145
1059.12 -262.274 1135
1058.61 -260.744 1125
1058.97 -259.442 1116
1058.31 -257.906 1106
1058.53 -256.6 1097
1058.69 -255.291 1088
1057.8 -253.745 1078
1056.82 -252.195 1068
1056.76 -250.878 1059
1055.62 -249.321 1049
1055.42 -247.999 1040
1055.15 -246.674 1031
1054.8 -245.346 1022
1054.39 -244.015 1013
1053.91 -242.682 1004
1052.3 -241.103 994
1052.73 -240.007 986
1052.04 -238.664 977
1051.27 -237.319 968
1051.52 -236.217 960
1051.72 -235.113 952
1051.87 -234.007 944
1050.84 -232.652 935
1050.86 -231.542 927
1050.83 -230.431 919
1049.59 -229.067 910
1049.44 -227.951 902
1049.23 -226.834 894
1048.96 -225.715 886
1048.64 -224.594 878
1049.46 -223.728 871
1049.03 -222.605 863
1048.55 -221.479 855
1046.76 -220.091 846
1047.4 -219.221 839
1046.73 -218.089 831
1047.28 -217.219 824
1047.79 -216.348 817
1046.97 -215.212 809
1046.08 -214.074 801
1046.46 -213.201 794
1045.46 -212.059 786
1045.75 -211.186 779
1046 -210.313 772
1044.85 -209.166 764
1045.01 -208.291 757
1045.13 -207.417 750
1043.81 -206.265 742
1043.85 -205.389 735
1043.85 -204.514 728
1042.36 -203.357 720
1040.81 -202.196 712
1040.67 -201.318 705
1041.98 -200.727 699
1041.78 -199.851 692
1043.06 -199.266 686
1044.34 -198.684 680
1048.71 -198.693 676
1050 -198.122 670
1054.46 -198.15 666
1055.78 -197.59 660
1055.48 -196.734 653
1058.41 -196.484 648
1059.73 -195.938 642
1066.05 -196.317 639
1070.8 -196.405 635
-387.233 -69.5267 230
-386.424 -69.6599 232
-383.976 -69.4974 233
-379.938 -69.0448 233
-374.362 -68.3078 232
-365.698 -66.9989 229
-358.782 -66.001 227
-350.432 -64.7301 224
-345.339 -64.0526 223
-340.338 -63.3866 222
-336.944 -63.0158 222
-332.105 -62.3703 221
-328.838 -62.0159 221
-327.098 -61.9478 222
-323.922 -61.6059 222
-322.241 -61.5468 223
-320.582 -61.4912 224
-318.943 -61.4391 225
-317.324 -61.3903 226
-315.723 -61.3447 227
-314.141 -61.3024 228
-312.577 -61.2631 229
-311.029 -61.2268 230
-309.498 -61.1934 231
-309.31 -61.4265 233
-307.798 -61.3974 234
-306.3 -61.3711 235
-304.816 -61.3473 236
-303.346 -61.3261 237
-301.89 -61.3074 238
-300.446 -61.2911 239
-300.26 -61.5324 241
-298.829 -61.5197 242
-298.633 -61.7623 244
-298.427 -62.0049 246
-298.21 -62.2476 248
-296.791 -62.2404 249
-296.564 -62.4843 251
-296.325 -62.7281 253
-296.076 -62.972 255
-294.666 -62.97 256
-294.406 -63.2149 258
-294.134 -63.4598 260
-293.853 -63.7048 262
-292.448 -63.7075 263
-292.154 -63.9534 265
-291.849 -64.1993 267
-291.533 -64.4452 269
-291.206 -64.6911 271
-290.869 -64.937 273
-290.52 -65.183 275
-291.209 -65.6651 278
-290.83 -65.9103 280
-290.44 -66.1555 282
-290.039 -66.4008 284
-289.628 -66.646 286
-289.206 -66.8913 288
-287.778 -66.9052 289
-287.343 -67.1513 291
-286.897 -67.3976 293
-286.44 -67.6438 295
-285.973 -67.8901 297
-285.495 -68.1364 299
-285.953 -68.61 302
-285.445 -68.8558 304
-284.927 -69.1016 306
-285.322 -69.5727 309
-284.775 -69.818 311
-284.218 -70.0635 313
-283.65 -70.309 315
-283.964 -70.7772 318
-284.254 -71.2443 321
-284.517 -71.7102 324
-285.627 -72.3958 328
-286.698 -73.0791 332
-286.873 -73.5408 335
-287.872 -74.2203 339
-290.518 -75.3344 345
-294.767 -76.8798 353
-299.751 -78.6359 362
-302.986 -79.9511 369
-303.701 -80.6129 373
-303.572 -81.0572 376
-301.82 -81.0708 377
-300.866 -81.3004 379
-1419.82 -421.686 2034
-1428.94 -427.216 2065
-1403.96 -428.293 2083
-1393.64 -428.048 2086
-1379.38 -426.581 2083
-1367.85 -425.945 2084
-1357.67 -425.727 2087
-1344.96 -424.701 2086
-1334.24 -424.297 2088
-1324.83 -424.306 2092
-1312.93 -423.511 2092
-1301.72 -422.929 2093
-1291.17 -422.557 2095
-1280.67 -422.193 2097
-1272.02 -422.439 2102
-1266.38 -423.695 2112
-1262.47 -425.553 2125
-1254.94 -426.212 2132
-1246.81 -426.675 2138
-1237.53 -426.745 2142
-1228.82 -427.019 2147
-1219.56 -427.101 2151
-1211.43 -427.585 2157
-1202.18 -427.678 2161
-1193.5 -427.975 2166
-1183.18 -427.685 2168
-1172.35 -427.206 2169
-1160.49 -426.341 2168
-1149.23 -425.681 2168
-1138.01 -425.029 2168
-1125.81 -423.993 2166
-1114.71 -423.358 2166
-1103.65 -422.731 2166
-1092.14 -421.917 2165
-1081.69 -421.5 2166
-1071.27 -421.09 2167
-1060.4 -420.493 2167
-1050.06 -420.098 2168
-1039.28 -419.516 2168
-1029.48 -419.328 2170
-1018.77 -418.76 2170
-1009.04 -418.585 2172
-998.405 -418.031 2172
-988.269 -417.676 2173
-977.263 -416.945 2172
-966.753 -416.412 2172
-955.402 -415.503 2170
-944.98 -414.985 2170
-934.166 -414.282 2169
-923.399 -413.587 2168
-913.1 -413.089 2168
-902.421 -412.408 2167
-892.611 -412.114 2168
-882.828 -411.825 2169
-872.265 -411.164 2168
-861.746 -410.51 2167
-851.27 -409.862 2166
-840.449 -409.032 2164
-830.83 -408.775 2165
-820.855 -408.336 2165
-810.537 -407.714 2164
-801 -407.476 2165
-791.484 -407.243 2166
-780.546 -406.264 2163
-770.022 -405.48 2161
-759.896 -404.89 2160
-749.461 -404.12 2158
-739.415 -403.542 2157
-729.744 -403.158 2157
-720.101 -402.78 2157
-710.155 -402.22 2156
-700.244 -401.667 2155
-690.689 -401.306 2155
-681.159 -400.95 2155
-671.343 -400.414 2154
-661.867 -400.069 2154
-652.415 -399.73 2154
-642.988 -399.396 2154
-633.289 -398.883 2153
-624.202 -398.745 2154
-614.843 -398.428 2154
-605.507 -398.115 2154
-595.638 -397.439 2152
-586.626 -397.322 2153
-577.089 -396.84 2152
-567.582 -396.365 2151
-558.622 -396.263 2152
-549.164 -395.798 2151
-539.984 -395.522 2151
-531.07 -395.434 2152
-521.681 -394.984 2151
-512.557 -394.723 2151
-503.451 -394.467 2151
-494.362 -394.216 2151
-485.291 -393.97 2151
-476.015 -393.545 2150
-466.764 -393.126 2149
-457.751 -392.894 2149
-448.545 -392.484 2148
-439.362 -392.08 2147
-430.603 -392.045 2148
-421.851 -392.015 2149
-412.721 -391.625 2148
-403.802 -391.422 2148
-394.712 -391.041 2147
-386.003 -391.029 2148
-376.597 -390.294 2145
-368.085 -390.473 2147
-359.067 -390.111 2146
-350.397 -390.117 2147
-341.411 -389.764 2146
-332.91 -389.961 2148
-323.8 -389.436 2146
-315.012 -389.278 2146
-306.09 -388.944 2145
-297.326 -388.795 2145
-288.438 -388.47 2144
-279.828 -388.512 2145
-271.092 -388.376 2145
-262.244 -388.064 2144
-253.53 -387.938 2144
-244.711 -387.635 2143
-236.018 -387.517 2143
-227.226 -387.222 2142
-218.655 -387.294 2143
-209.788 -386.828 2141
-201.132 -386.727 2141
-192.393 -386.451 2140
-183.841 -386.539 2141
-175.04 -386.09 2139
-166.417 -386.007 2139
-157.8 -385.928 2139
-149.257 -386.034 2140
-140.58 -385.782 2139
-132.039 -385.896 2140
-123.437 -385.834 2140
-114.731 -385.415 2138
-106.144 -385.362 2138
-97.5609 -385.312 2138
-88.9808 -385.266 2138
-80.366 -385.045 2137
-71.8289 -385.188 2138
-63.2863 -385.335 2139
-54.7121 -385.307 2139
-46.1397 -385.282 2139
-37.5689 -385.261 2139
-29.0127 -385.425 2140
-20.4209 -385.053 2138
-11.8623 -385.225 2139
-3.2947 -385.221 2139
5.2703 -385.041 2138
13.8277 -384.866 2137
22.3982 -385.055 2138
30.9342 -384.707 2136
39.4919 -384.724 2136
48.0285 -384.565 2135
56.6116 -384.771 2136
65.1438 -384.62 2135
73.6696 -384.473 2134
82.1517 -384.151 2132
90.7477 -384.373 2133
99.3082 -384.419 2133
107.923 -384.649 2134
116.548 -384.884 2135
125.127 -384.942 2135
133.648 -384.825 2134
142.165 -384.711 2133
150.749 -384.783 2133
159.412 -385.038 2134
168.089 -385.298 2135
176.78 -385.563 2136
185.397 -385.651 2136
193.93 -385.563 2135
202.461 -385.479 2134
211.089 -385.58 2134
219.621 -385.504 2133
228.26 -385.613 2133
237.017 -385.908 2134
245.79 -386.207 2135
254.341 -386.148 2134
263.015 -386.275 2134
271.698 -386.406 2134
280.259 -386.36 2133
288.956 -386.5 2133
297.802 -386.825 2134
306.523 -386.974 2134
315.549 -387.489 2136
324.451 -387.828 2137
332.903 -387.627 2135
341.671 -387.794 2135
350.45 -387.964 2135
359.072 -387.958 2134
367.871 -388.138 2134
377.211 -388.868 2137
385.686 -388.693 2135
394.897 -389.251 2137
403.759 -389.449 2137
412.636 -389.652 2137
421.329 -389.677 2136
430.229 -389.889 2136
438.939 -389.923 2135
447.655 -389.962 2134
456.593 -390.188 2134
465.327 -390.236 2133
474.514 -390.654 2134
483.727 -391.078 2135
492.733 -391.323 2135
501.756 -391.573 2135
510.797 -391.828 2135
520.1 -392.271 2136
529.181 -392.536 2136
538.281 -392.806 2136
547.656 -393.265 2137
557.059 -393.729 2138
565.96 -393.83 2137
574.873 -393.936 2136
584.072 -394.231 2136
593.291 -394.531 2136
602.531 -394.836 2136
611.507 -394.962 2135
620.786 -395.278 2135
630.088 -395.598 2135
639.114 -395.739 2134
648.761 -396.256 2135
658.133 -396.593 2135
667.841 -397.121 2136
677.583 -397.655 2137
687.68 -398.381 2139
697.168 -398.74 2139
706.682 -399.105 2139
715.888 -399.289 2138
725.111 -399.478 2137
734.696 -399.859 2137
744.309 -400.247 2137
753.95 -400.64 2137
763.262 -400.851 2136
772.956 -401.255 2136
782.313 -401.477 2135
791.69 -401.705 2134
801.84 -402.315 2135
811.27 -402.554 2134
821.876 -403.366 2136
831.754 -403.806 2136
842.058 -404.442 2137
851.209 -404.516 2135
861.584 -405.165 2136
870.779 -405.25 2134
881.64 -406.102 2136
890.468 -406.009 2133
900.57 -406.493 2133
910.28 -406.793 2132
920.45 -407.289 2132
930.22 -407.601 2131
940.902 -408.303 2132
951.185 -408.82 2132
961.958 -409.535 2133
972.324 -410.066 2133
983.192 -410.797 2134
993.644 -411.342 2134
1003.67 -411.701 2133
1014.2 -412.26 2133
1024.29 -412.633 2132
1033.93 -412.818 2130
1043.11 -412.816 2127
1052.3 -412.819 2124
1061 -412.634 2120
1069.71 -412.454 2116
1077.41 -411.889 2110
1085.6 -411.523 2105
1090.67 -409.987 2094
1095.67 -408.453 2083
1098.48 -406.134 2068
1101.73 -404.011 2054
1101.08 -400.508 2033
1098.62 -396.408 2009
1099.83 -393.683 1992
1091.99 -387.789 1959
1093.97 -385.45 1944
1089.03 -380.726 1917
1083.85 -375.992 1890
1081.9 -372.443 1869
1082.7 -369.885 1853
1078.07 -365.525 1828
1077.97 -362.758 1811
1072.94 -358.381 1786
1068.28 -354.195 1762
1070.14 -352.215 1749
1067.59 -348.821 1729
1066.73 -346.026 1712
1065.1 -343.024 1694
1065.23 -340.625 1679
1065.87 -338.425 1665
1064.48 -335.611 1648
1064.24 -333.2 1633
1063.88 -330.785 1618
1063.4 -328.366 1603
1062.8 -325.942 1588
1062.08 -323.514 1573
1060.55 -320.876 1557
1060.27 -318.645 1543
1058.48 -315.996 1527
1058.65 -313.963 1514
1059.43 -312.135 1502
1060.83 -310.513 1491
1062.87 -309.098 1481
1064.12 -307.473 1470
1064.56 -305.636 1458
1064.91 -303.797 1446
1064.42 -301.744 1433
1065.33 -300.109 1422
1066.16 -298.472 1411
1065.38 -296.409 1398
1066.03 -294.766 1387
1065.83 -292.909 1375
1065.53 -291.047 1363
1065.13 -289.182 1351
1067.02 -287.958 1342
1064.85 -285.657 1328
1065.78 -284.212 1318
1065.83 -282.55 1307
1065.8 -280.884 1296
1065.67 -279.216 1285
1065.46 -277.544 1274
1065.17 -275.869 1263
1065.64 -274.409 1253
1063.46 -272.289 1240
1062.89 -270.603 1229
1062.23 -268.913 1218
1062.37 -267.441 1208
1062.42 -265.967 1198
1061.51 -264.267 1187
1061.41 -262.786 1177
1060.32 -261.079 1166
1060.05 -259.592 1156
1059.7 -258.102 1146
1059.28 -256.608 1136
1058.78 -255.112 1126
1059.14 -253.84 1117
1057.53 -252.109 1106
1057.74 -250.831 1097
1057.89 -249.551 1088
1057 -248.039 1078
1057.01 -246.754 1069
1056.95 -245.466 1060
1055.82 -243.944 1050
1055.62 -242.651 1041
1055.35 -241.355 1032
1055.01 -240.057 1023
1053.57 -238.521 1013
1053.08 -237.216 1004
1052.52 -235.909 995
1051.89 -234.599 986
1052.27 -233.525 978
1051.51 -232.209 969
1051.76 -231.131 961
1051.97 -230.052 953
1051 -228.729 944
1051.09 -227.646 936
1051.12 -226.561 928
1051.09 -225.475 920
1048.7 -223.895 910
1048.55 -222.803 902
1048.33 -221.71 894
1049.24 -220.864 887
1048.92 -219.768 879
1048.54 -218.67 871
1049.32 -217.822 864
1047.61 -216.468 855
1047.06 -215.365 847
1047.7 -214.514 840
1048.29 -213.664 833
1047.58 -212.556 825
1048.1 -211.705 818
1047.28 -210.594 810
1046.4 -209.481 802
1045.46 -208.366 794
1045.79 -207.511 787
1046.08 -206.657 780
1046.33 -205.803 773
1045.18 -204.682 765
1045.35 -203.827 758
1045.48 -202.972 751
1044.16 -201.846 743
1044.2 -200.99 736
1044.21 -200.134 729
1042.72 -199.002 721
1041.18 -197.867 713
1041.04 -197.009 706
1042.35 -196.431 700
1042.16 -195.574 693
1044.96 -195.285 688
1046.25 -194.717 682
1050.63 -194.728 678
1051.94 -194.171 672
1054.83 -193.908 667
1056.15 -193.361 661
1059.09 -193.112 656
1060.42 -192.575 650
1061.76 -192.042 644
1069.76 -192.715 642
-386.766 -67.8989 230
-385.964 -68.03 232
-383.524 -67.8723 233
-377.868 -67.1418 232
-370.708 -66.1372 230
-362.092 -64.8634 227
-355.221 -63.8931 225
-348.48 -62.9383 223
-343.413 -62.2791 222
-338.437 -61.6311 221
-333.55 -60.9939 220
-330.25 -60.643 220
-327.006 -60.2992 220
-325.285 -60.2348 221
-323.588 -60.174 222
-320.469 -59.8473 222
-318.828 -59.795 223
-317.207 -59.7461 224
-315.606 -59.7005 225
-314.024 -59.6579 226
-312.459 -59.6184 227
-312.275 -59.8432 229
-310.732 -59.8083 230
-309.205 -59.7762 231
-307.693 -59.7468 232
-306.197 -59.7202 233
-304.715 -59.6961 234
-303.247 -59.6745 235
-303.071 -59.9082 237
-300.351 -59.6387 237
-300.178 -59.8748 239
-298.749 -59.8616 240
-298.566 -60.099 242
-297.15 -60.0891 243
-296.957 -60.3276 245
-296.753 -60.5662 247
-296.538 -60.8047 249
-296.313 -61.0433 251
-296.076 -61.2819 253
-295.83 -61.5206 255
-294.422 -61.5189 256
-294.164 -61.7586 258
-293.894 -61.9982 260
-293.614 -62.2379 262
-292.212 -62.2409 263
-291.92 -62.4814 265
-291.617 -62.722 267
-291.303 -62.9626 269
-290.978 -63.2032 271
-290.642 -63.4437 273
-291.351 -63.9159 276
-290.984 -64.1557 278
-290.607 -64.3955 280
-291.248 -64.8646 283
-290.84 -65.1037 285
-289.41 -65.1152 286
-288.99 -65.3551 288
-287.563 -65.3689 289
-287.13 -65.6097 291
-286.686 -65.8505 293
-286.23 -66.0914 295
-285.764 -66.3323 297
-286.242 -66.7959 300
-285.747 -67.0362 302
-285.241 -67.2766 304
-285.655 -67.7376 307
-285.12 -67.9775 309
-284.574 -68.2175 311
-284.018 -68.4575 313
-283.452 -68.6977 315
-283.767 -69.1554 318
-283.172 -69.3951 320
-284.321 -70.0675 324
-285.431 -70.7376 328
-285.639 -71.1904 331
-286.677 -71.8567 335
-288.526 -72.7349 340
-291.164 -73.8232 346
-295.404 -75.3328 354
-300.379 -77.0484 363
-302.785 -78.1215 369
-303.5 -78.7683 373
-303.372 -79.2027 376
-301.621 -79.2162 377
-300.669 -79.4408 379
-1406.48 -419.52 2088
-1397.47 -419.68 2093
-1380.53 -417.445 2086
-1336 -415.409 2092
-1326.57 -415.417 2096
-1316.54 -415.234 2099
-1305.92 -414.86 2101
-1295.95 -414.692 2104
-1284.19 -413.94 2104
-1271.63 -415.993 2122
-1264.7 -416.827 2130
-1255.98 -417.079 2135
-1247.26 -417.337 2140
-1237.39 -417.21 2143
-1230.98 -418.256 2152
-1221.69 -418.335 2156
-1212.42 -418.42 2160
-1202.61 -418.317 2163
-1193.37 -418.414 2167
-1182.51 -417.939 2168
-1171.68 -417.471 2169
-1160.37 -416.818 2169
-1149.11 -416.173 2169
-1137.37 -415.345 2168
-1125.7 -414.525 2167
-1114.6 -413.905 2167
-1103.55 -413.292 2167
-1091.54 -412.306 2165
-1081.09 -411.899 2166
-1071.17 -411.689 2168
-1060.79 -411.296 2169
-1050.45 -410.91 2170
-1040.14 -410.53 2171
-1029.39 -409.969 2171
-1019.16 -409.602 2172
-1008.95 -409.243 2173
-998.781 -408.89 2174
-988.186 -408.356 2174
-977.633 -407.828 2174
-966.675 -407.12 2173
-955.766 -406.42 2172
-944.471 -405.54 2170
-933.664 -404.853 2169
-923.33 -404.361 2169
-912.611 -403.689 2168
-902.356 -403.209 2168
-892.136 -402.736 2168
-882.765 -402.641 2170
-871.802 -401.809 2168
-861.688 -401.355 2168
-851.607 -400.907 2168
-840.782 -400.096 2166
-830.777 -399.661 2166
-820.803 -399.232 2166
-810.113 -398.441 2164
-800.581 -398.208 2165
-790.706 -397.797 2165
-780.14 -397.024 2163
-769.977 -396.442 2162
-759.853 -395.866 2161
-749.42 -395.113 2159
-739.375 -394.549 2158
-729.706 -394.173 2158
-720.064 -393.804 2158
-710.119 -393.257 2157
-700.534 -392.899 2157
-690.335 -392.182 2155
-681.126 -392.016 2156
-671.311 -391.493 2155
-661.529 -390.975 2154
-652.386 -390.825 2155
-642.959 -390.499 2155
-633.262 -389.997 2154
-623.596 -389.501 2153
-614.247 -389.191 2153
-604.919 -388.886 2153
-595.337 -388.406 2152
-586.33 -388.292 2153
-577.067 -388.002 2153
-567.824 -387.717 2153
-558.342 -387.258 2152
-549.399 -387.163 2153
-540.215 -386.893 2153
-531.051 -386.629 2153
-521.663 -386.189 2152
-512.54 -385.934 2152
-503.434 -385.684 2152
-494.117 -385.26 2151
-485.05 -385.019 2151
-476.001 -384.783 2151
-466.75 -384.374 2150
-457.525 -383.969 2149
-448.532 -383.747 2149
-439.349 -383.352 2148
-430.592 -383.318 2149
-421.644 -383.11 2149
-412.71 -382.907 2149
-403.791 -382.709 2149
-394.885 -382.515 2149
-386.352 -382.681 2151
-376.939 -381.963 2148
-368.076 -381.782 2148
-359.059 -381.428 2147
-350.225 -381.257 2147
-341.244 -380.912 2146
-332.593 -380.927 2147
-323.643 -380.592 2146
-314.711 -380.261 2145
-305.941 -380.111 2145
-297.182 -379.966 2145
-288.432 -379.826 2145
-279.692 -379.689 2145
-271.087 -379.734 2146
-262.239 -379.429 2145
-253.644 -379.482 2146
-244.82 -379.186 2145
-236.123 -379.071 2145
-227.328 -378.783 2144
-218.753 -378.853 2145
-209.882 -378.398 2143
-201.223 -378.299 2143
-192.48 -378.029 2142
-183.838 -377.939 2142
-174.956 -377.324 2139
-166.415 -377.419 2140
-157.798 -377.342 2140
-149.185 -377.269 2140
-140.578 -377.2 2140
-131.976 -377.135 2140
-123.377 -377.074 2140
-114.729 -376.841 2139
-106.143 -376.789 2139
-97.5138 -376.564 2138
-88.9795 -376.696 2139
-80.3648 -376.479 2138
-71.828 -376.619 2139
-63.2557 -376.587 2139
-54.6857 -376.559 2139
-46.1174 -376.535 2139
-37.5682 -376.691 2140
-28.9986 -376.675 2140
